# .PCD v0.7 - Point Cloud Data file format
VERSION 0.7
FIELDS x y z
SIZE 4 4 4
TYPE F F F
COUNT 1 1 1
WIDTH 2176
HEIGHT 1
VIEWPOINT 0 0 0 1 0 0 0
POINTS 2176
DATA ascii
113.52701 220.01401 13
115.52201 219.772 12
117.51302 219.53 11
119.60001 218.56201 7
121.67101 217.59399 3
123.66701 217.10999 1
125.62801 216.868 0
127.50801 217.35201 2
129.37401 218.078 5
131.25201 218.804 8
133.14201 219.53 11
135.07802 219.772 12
137.01901 220.01401 13
138.97601 220.01401 13
140.93401 220.01401 13
142.89201 220.01401 13
144.84901 220.01401 13
146.80701 220.01401 13
148.76501 220.01401 13
150.72202 220.01401 13
152.68001 220.01401 13
154.63701 220.01401 13
156.60001 220.257 14
158.58101 220.983 17
160.57401 221.709 20
162.55701 221.95099 21
164.54401 222.19301 22
60.986008 227.658 53
63.02401 227.658 53
65.235008 227.17799 51
67.521011 226.45799 48
69.878014 225.498 44
72.218018 224.53799 40
74.541016 223.578 36
76.849014 222.617 32
79.067017 221.897 29
81.128014 221.657 28
83.116013 221.657 28
85.104012 221.657 28
87.027016 221.897 29
89.144012 221.41699 27
91.192017 221.177 26
93.235016 220.937 25
95.275009 220.69701 24
97.255013 220.69701 24
99.28801 220.457 23
101.36901 219.97701 21
103.44202 219.49699 19
105.45901 219.257 18
107.47301 219.017 17
109.52501 218.537 15
111.48701 218.537 15
113.44901 218.537 15
115.44801 218.297 14
117.44301 218.05701 13
119.53401 217.097 9
121.57701 216.377 6
123.57901 215.89699 4
125.54601 215.657 3
127.48302 215.657 3
129.37401 216.13701 5
131.27301 216.617 7
133.18001 217.097 9
135.09502 217.577 11
137.01901 218.05701 13
138.95001 218.537 15
140.90102 218.77699 16
142.85501 219.017 17
144.82101 219.017 17
146.79201 218.77699 16
148.75601 218.77699 16
150.71901 218.77699 16
152.68301 218.77699 16
154.64702 218.77699 16
156.62102 219.257 18
158.60301 219.737 20
160.59302 220.21701 22
162.58002 220.457 23
164.54401 220.21701 22
166.52002 220.21701 22
61.166008 225.144 51
63.200012 225.144 51
65.321014 224.90599 49.999939
67.605011 224.19099 47.000061
69.960014 223.239 43
72.298012 222.287 39
74.619019 221.33499 35
76.925018 220.383 31
79.067017 219.907 29
81.200012 219.431 27
83.256012 219.19299 26
85.172012 219.431 27
87.158012 219.431 27
89.208008 219.19299 26
91.192017 219.19299 26
93.17601 219.19299 26
95.102013 219.431 27
97.088013 219.431 27
99.127014 219.19299 26
101.21501 218.717 24
103.24401 218.47899 23
105.26901 218.24101 22
107.33601 217.765 20
109.39501 217.289 18
111.40401 217.05099 17
113.37001 217.05099 17
115.33501 217.05099 17
117.33701 216.813 16
119.40001 216.099 13
121.45201 215.38501 10
123.49101 214.67101 7
125.46401 214.433 6
127.40701 214.433 6
129.32802 214.67101 7
131.25201 214.909 8
133.16101 215.38501 10
135.07802 215.86099 12
137.00401 216.33699 14
138.92401 217.05099 17
140.87901 217.289 18
142.83701 217.52701 19
144.80701 217.52701 19
146.78201 217.289 18
148.75002 217.289 18
150.71701 217.289 18
152.68602 217.52701 19
154.65901 217.765 20
156.63602 218.00301 21
158.62401 218.47899 23
160.61101 218.717 24
162.58002 218.47899 23
164.53101 218.00301 21
166.49001 217.765 20
168.46201 217.765 20
61.256012 222.873 49.999939
63.28801 222.873 49.999939
65.407013 222.63699 49
67.689018 221.929 46
70.041016 220.985 42
72.377007 220.041 38
74.697006 219.097 34
76.849014 218.625 32
79.067017 217.91699 29
81.200012 217.44501 27
83.256012 217.209 26
85.240013 217.209 26
87.158012 217.44501 27
89.144012 217.44501 27
91.130013 217.44501 27
93.116013 217.44501 27
95.044006 217.681 28
96.977013 217.91699 29
99.02002 217.681 28
101.11101 217.209 26
103.14501 216.97301 25
105.17401 216.737 24
107.20001 216.50099 23
109.26401 216.02901 21
111.28001 215.79399 20
113.25101 215.79399 20
115.22301 215.79399 20
117.23001 215.558 19
119.26701 215.086 17
121.32701 214.37801 14
123.37401 213.67 11
125.35501 213.43399 10
127.33202 213.19801 9
129.25801 213.43399 10
131.18802 213.67 11
133.12302 213.90601 12
135.061 214.142 13
136.98901 214.614 15
138.92401 215.086 17
140.87901 215.32201 18
142.83701 215.558 19
144.80701 215.558 19
146.77701 215.558 19
148.74701 215.558 19
150.71501 215.79399 20
152.68802 216.02901 21
154.66202 216.02901 21
156.64101 216.265 22
158.62401 216.50099 23
160.60202 216.50099 23
162.55701 216.02901 21
164.505 215.558 19
166.44402 215.086 17
168.42702 215.32201 18
170.45302 216.02901 21
63.28801 220.84001 49.999939
65.407013 220.60699 49
67.689018 219.905 46
70.123016 218.735 41
72.457016 217.799 37
74.775009 216.86301 33
76.925018 216.395 31
79.067017 215.927 29
81.200012 215.459 27
83.326012 214.991 25
85.240013 215.22499 26
87.09201 215.69299 28
89.080017 215.69299 28
91.007011 215.927 29
92.997009 215.927 29
94.987015 215.927 29
96.977013 215.927 29
99.02002 215.69299 28
101.06001 215.459 27
103.09502 215.22499 26
105.12701 214.991 25
107.15401 214.758 24
109.17801 214.524 23
111.19701 214.28999 22
113.17302 214.28999 22
115.14801 214.28999 22
117.16002 214.056 21
119.16702 213.82199 20
121.23302 213.12 17
123.25701 212.65199 15
125.27301 212.18399 13
127.25601 211.95 12
129.21201 211.95 12
131.14601 212.18399 13
133.104 212.18399 13
135.04401 212.418 14
136.97301 212.886 16
138.92401 213.12 17
140.87901 213.354 18
142.84601 213.354 18
144.81401 213.354 18
146.77701 213.588 19
148.74402 213.82199 20
150.71402 214.056 21
152.68802 214.056 21
154.65901 213.82199 20
156.63101 213.82199 20
158.60301 213.82199 20
160.57401 213.82199 20
162.52402 213.354 18
164.45201 212.65199 15
166.41402 212.65199 15
168.41002 213.12 17
170.45302 214.056 21
65.407013 218.576 49
67.77301 217.64799 45
70.123016 216.72099 41
72.53701 215.561 36
74.775009 214.86501 33
76.925018 214.401 31
79.140015 213.705 28
81.272011 213.24199 26
83.326012 213.00999 25
85.240013 213.24199 26
87.09201 213.705 28
89.017014 213.937 29
91.007011 213.937 29
92.997009 213.937 29
94.987015 213.937 29
97.032013 213.705 28
99.074013 213.47299 27
101.06001 213.47299 27
103.09502 213.24199 26
105.12701 213.00999 25
107.15401 212.778 24
109.17801 212.54601 23
111.15501 212.54601 23
113.17302 212.314 22
115.14801 212.314 22
117.12401 212.314 22
119.13401 212.082 21
121.17001 211.61801 19
123.19801 211.15399 17
125.19101 210.922 16
127.18001 210.69 15
129.14201 210.69 15
131.104 210.69 15
133.06502 210.69 15
135.02701 210.69 15
136.97301 210.922 16
138.92401 211.15399 17
140.87901 211.386 18
142.84601 211.386 18
144.80701 211.61801 19
146.77701 211.61801 19
148.74402 211.85001 20
150.71402 212.082 21
152.68701 211.85001 20
154.65601 211.61801 19
156.61501 211.15399 17
158.58101 211.15399 17
160.54701 211.15399 17
162.49001 210.69 15
164.42502 210.226 13
166.38301 210.226 13
168.39201 210.922 16
170.43301 211.85001 20
67.85701 215.396 44
70.205009 214.476 40
72.53701 213.55701 36
74.853012 212.63699 32
77.001015 212.17699 30
79.214012 211.487 27
81.272011 211.258 26
83.326012 211.028 25
85.172012 211.487 27
87.09201 211.717 28
89.017014 211.94699 29
91.007011 211.94699 29
93.056015 211.717 28
95.102013 211.487 27
97.088013 211.487 27
99.127014 211.258 26
101.11101 211.258 26
103.09502 211.258 26
105.12701 211.028 25
107.15401 210.79799 24
109.17801 210.56799 23
111.19701 210.338 22
113.17302 210.338 22
115.14801 210.338 22
117.16002 210.108 21
119.13401 210.108 21
121.13902 209.87799 20
123.11002 209.87799 20
125.10901 209.64799 19
127.10401 209.418 18
129.09502 209.188 17
131.08202 208.95799 16
133.04602 208.95799 16
135.01001 208.95799 16
136.95801 209.188 17
138.91101 209.418 18
140.86801 209.64799 19
142.82802 209.87799 20
144.80002 209.87799 20
146.76701 210.108 21
148.74101 210.108 21
150.71402 210.108 21
152.68701 209.87799 20
154.65302 209.418 18
156.61002 208.95799 16
158.56702 208.729 15
160.52901 208.729 15
162.47902 208.49899 14
164.42502 208.269 13
166.38301 208.269 13
168.37502 208.729 15
170.39502 209.418 18
68.025017 212.92 42
70.205009 212.464 40
72.53701 211.55299 36
74.853012 210.64099 32
77.077011 209.957 29
79.214012 209.502 27
81.272011 209.27399 26
83.256012 209.27399 26
85.172012 209.502 27
87.09201 209.729 28
89.080017 209.729 28
91.068008 209.729 28
93.116013 209.502 27
95.160019 209.27399 26
97.144012 209.27399 26
99.127014 209.27399 26
101.11101 209.27399 26
103.14501 209.04601 25
105.17401 208.81801 24
107.20001 208.59 23
109.26401 208.13399 21
111.23801 208.13399 21
113.25101 207.90599 20
115.22301 207.90599 20
117.19501 207.90599 20
119.16702 207.90599 20
121.10701 208.13399 21
123.08101 208.13399 21
125.05501 208.13399 21
127.05402 207.90599 20
129.02602 207.90599 20
131.01901 207.67801 19
132.98901 207.67801 19
134.97501 207.451 18
136.92801 207.67801 19
138.88501 207.90599 20
140.84502 208.13399 21
142.81001 208.362 22
144.78601 208.362 22
146.76201 208.362 22
148.74101 208.13399 21
150.71402 208.13399 21
152.68701 207.90599 20
154.65302 207.451 18
156.61501 207.22299 17
158.57401 206.995 16
160.53801 206.995 16
162.49001 206.767 15
164.43901 206.539 14
166.38301 206.311 13
168.35802 206.539 14
170.35602 206.995 16
68.109009 210.67799 41
70.28701 210.226 39
72.53701 209.54799 36
74.775009 208.871 33
77.001015 208.19301 30
79.140015 207.741 28
81.272011 207.28999 26
83.256012 207.28999 26
85.240013 207.28999 26
87.158012 207.51601 27
89.144012 207.51601 27
91.130013 207.51601 27
93.17601 207.28999 26
95.21701 207.064 25
97.199013 207.064 25
99.181015 207.064 25
101.16301 207.064 25
103.19402 206.838 24
105.22202 206.612 23
107.29102 206.15999 21
109.30801 205.935 20
111.28001 205.935 20
113.29102 205.709 19
115.26102 205.709 19
117.23001 205.709 19
119.16702 205.935 20
121.10701 206.15999 21
123.08101 206.15999 21
125.02802 206.386 22
127.02901 206.15999 21
129.00302 206.15999 21
130.97601 206.15999 21
132.95001 206.15999 21
134.94101 205.935 20
136.89801 206.15999 21
138.87201 206.15999 21
140.82301 206.612 23
142.80101 206.612 23
144.77901 206.612 23
146.76201 206.386 22
148.74101 206.15999 21
150.71402 206.15999 21
152.68802 206.15999 21
154.65901 205.935 20
156.62601 205.709 19
158.59502 205.709 19
160.56502 205.709 19
162.52402 205.483 18
164.47801 205.257 17
166.41402 204.80501 15
168.37502 204.80501 15
170.37502 205.257 17
172.40501 205.935 20
68.193008 208.439 40
70.28701 208.216 39
72.53701 207.54399 36
74.697006 207.09599 34
76.925018 206.425 31
79.067017 205.97699 29
81.200012 205.53 27
83.256012 205.306 26
85.308014 205.082 25
87.290009 205.082 25
89.271011 205.082 25
91.253006 205.082 25
93.295013 204.858 24
95.275009 204.858 24
97.255013 204.858 24
99.235016 204.858 24
101.21501 204.858 24
103.24401 204.634 23
105.26901 204.41 22
107.29102 204.18701 21
109.30801 203.963 20
111.32101 203.739 19
113.33002 203.515 18
115.29801 203.515 18
117.26601 203.515 18
119.20001 203.739 19
121.10701 204.18701 21
123.05202 204.41 22
125.02802 204.41 22
127.00401 204.41 22
128.97902 204.41 22
130.95502 204.41 22
132.91202 204.634 23
134.90701 204.41 22
136.88301 204.41 22
138.85901 204.41 22
140.82301 204.634 23
142.80101 204.634 23
144.77901 204.634 23
146.76201 204.41 22
148.73801 204.41 22
150.71402 204.41 22
152.69002 204.634 23
154.66801 204.634 23
156.64601 204.634 23
158.62401 204.634 23
160.60202 204.634 23
162.56902 204.41 22
164.505 203.739 19
166.44402 203.291 17
168.39201 203.067 16
170.39502 203.515 18
172.44801 204.41 22
68.445007 205.76199 37
70.451012 205.76199 37
72.53701 205.53999 36
74.697006 205.09601 34
76.849014 204.653 32
79.067017 203.987 29
81.200012 203.54401 27
83.256012 203.32199 26
85.308014 203.09999 25
87.355011 202.87799 24
89.399017 202.65601 23
91.377014 202.65601 23
93.414009 202.435 22
95.390015 202.435 22
97.310013 202.65601 23
99.28801 202.65601 23
101.26601 202.65601 23
103.29301 202.435 22
105.31702 202.213 21
107.33601 201.99101 20
109.30801 201.99101 20
111.32101 201.769 19
113.33002 201.547 18
115.29801 201.547 18
117.26601 201.547 18
119.20001 201.769 19
121.13902 201.99101 20
123.08101 202.213 21
125.02802 202.435 22
127.00401 202.435 22
128.97902 202.435 22
130.93401 202.65601 23
132.91202 202.65601 23
134.89001 202.65601 23
136.86801 202.65601 23
138.84502 202.65601 23
140.82301 202.65601 23
142.80101 202.65601 23
144.77901 202.65601 23
146.75702 202.65601 23
148.73502 202.65601 23
150.71201 202.87799 24
152.69202 202.87799 24
154.67502 203.09999 25
156.66202 203.32199 26
158.64502 203.32199 26
160.62901 203.32199 26
162.60202 203.09999 25
164.55801 202.65601 23
166.49001 201.99101 20
168.44402 201.769 19
170.45302 202.213 21
172.51201 203.09999 25
174.58701 203.987 29
68.613014 203.31601 35
70.615013 203.31601 35
72.697014 203.09601 34
74.775009 202.87601 33
77.001015 202.217 30
79.140015 201.77699 28
81.200012 201.558 27
83.256012 201.338 26
85.308014 201.118 25
87.355011 200.89801 24
89.463013 200.459 22
91.500015 200.239 21
93.534012 200.019 20
95.448013 200.239 21
97.422012 200.239 21
99.395012 200.239 21
101.36901 200.239 21
103.34302 200.239 21
105.31702 200.239 21
107.29102 200.239 21
109.30801 200.019 20
111.32101 199.799 19
113.33002 199.58 18
115.29801 199.58 18
117.26601 199.58 18
119.20001 199.799 19
121.13902 200.019 20
123.08101 200.239 21
125.05501 200.239 21
127.02901 200.239 21
129.00302 200.239 21
130.95502 200.459 22
132.91202 200.679 23
134.87302 200.89801 24
136.86801 200.679 23
138.84502 200.679 23
140.82301 200.679 23
142.80101 200.679 23
144.77202 200.89801 24
146.75201 200.89801 24
148.73201 200.89801 24
150.71101 201.118 25
152.69402 201.338 26
154.68102 201.558 27
156.67201 201.77699 28
158.66701 201.99699 29
160.65701 201.99699 29
162.62502 201.558 27
164.58401 201.118 25
166.53502 200.679 23
168.51302 200.679 23
170.53001 201.118 25
172.59702 201.99699 29
174.68001 202.87601 33
176.78001 203.756 37
68.613014 201.314 35
70.697014 201.09599 34
72.777008 200.87799 33
74.931007 200.44299 31
77.152016 199.789 28
79.214012 199.57199 27
81.200012 199.57199 27
83.186012 199.57199 27
85.240013 199.35399 26
87.355011 198.918 24
89.526016 198.265 21
91.562012 198.047 20
93.59301 197.83 19
95.563011 197.83 19
97.477013 198.047 20
99.449013 198.047 20
101.42101 198.047 20
103.39301 198.047 20
105.31702 198.265 21
107.33601 198.047 20
109.35101 197.83 19
111.36301 197.612 18
113.33002 197.612 18
115.29801 197.612 18
117.26601 197.612 18
119.20001 197.83 19
121.13902 198.047 20
123.08101 198.265 21
125.05501 198.265 21
127.05402 198.047 20
129.02602 198.047 20
130.97601 198.265 21
132.91202 198.70099 23
134.89001 198.70099 23
136.86801 198.70099 23
138.84502 198.70099 23
140.82301 198.70099 23
142.79201 198.918 24
144.77202 198.918 24
146.75201 198.918 24
148.73201 198.918 24
150.71101 199.136 25
152.69402 199.35399 26
154.68102 199.57199 27
156.67702 200.007 29
158.67401 200.22499 30
160.66602 200.22499 30
162.64702 200.007 29
164.62401 199.789 28
166.59601 199.57199 27
168.60001 199.789 28
170.60701 200.007 29
172.66101 200.661 32
174.75002 201.53201 36
176.88101 202.62 41
179.005 203.491 45
68.529015 199.52699 36
70.697014 199.09599 34
72.85701 198.664 32
75.087013 198.017 29
77.228012 197.586 27
79.28801 197.37 26
81.200012 197.586 27
83.186012 197.586 27
85.172012 197.586 27
87.355011 196.93901 24
89.526016 196.291 21
91.562012 196.076 20
93.59301 195.86 19
95.563011 195.86 19
97.533012 195.86 19
99.449013 196.076 20
101.42101 196.076 20
103.39301 196.076 20
105.36401 196.076 20
107.33601 196.076 20
109.35101 195.86 19
111.36301 195.64401 18
113.37001 195.42799 17
115.33501 195.42799 17
117.26601 195.64401 18
119.23401 195.64401 18
121.17001 195.86 19
123.11002 196.076 20
125.08202 196.076 20
127.05402 196.076 20
129.02602 196.076 20
130.99802 196.076 20
132.95001 196.291 21
134.90701 196.507 22
136.86801 196.72299 23
138.84502 196.72299 23
140.82301 196.72299 23
142.79201 196.93901 24
144.77202 196.93901 24
146.75201 196.93901 24
148.73201 196.93901 24
150.71201 196.93901 24
152.69301 197.15401 25
154.68102 197.586 27
156.67201 197.80199 28
158.66701 198.017 29
160.66602 198.23299 30
162.64702 198.017 29
164.63701 198.017 29
166.64201 198.23299 30
168.65102 198.44901 31
170.68401 198.88 33
172.74602 199.52699 36
174.84401 200.39 40
176.95702 201.25299 44
179.08701 202.116 48
66.181007 198.37799 40
68.361015 197.951 38
70.615013 197.31 35
72.777008 196.88199 33
75.00901 196.24101 30
77.152016 195.814 28
79.214012 195.60001 27
81.200012 195.60001 27
83.186012 195.60001 27
85.240013 195.38599 26
87.355011 194.959 24
89.526016 194.31799 21
91.562012 194.104 20
93.59301 193.89 19
95.563011 193.89 19
97.533012 193.89 19
99.503014 193.89 19
101.47202 193.89 19
103.44202 193.89 19
105.41202 193.89 19
107.38201 193.89 19
109.39501 193.67599 18
111.36301 193.67599 18
113.37001 193.463 17
115.33501 193.463 17
117.30101 193.463 17
119.26701 193.463 17
121.20101 193.67599 18
123.14001 193.89 19
125.10901 193.89 19
127.07901 193.89 19
129.04901 193.89 19
131.01901 193.89 19
132.96901 194.104 20
134.92401 194.31799 21
136.88301 194.53099 22
138.85901 194.53099 22
140.82301 194.74501 23
142.80101 194.74501 23
144.77202 194.959 24
146.75201 194.959 24
148.73502 194.74501 23
150.71201 194.959 24
152.69301 195.172 25
154.67801 195.38599 26
156.66701 195.60001 27
158.66002 195.814 28
160.65701 196.02699 29
162.65802 196.24101 30
164.66301 196.455 31
166.67302 196.668 32
168.686 196.88199 33
170.72301 197.31 35
172.81001 198.164 39
174.89001 198.806 42
177.00801 199.66 46
179.11502 200.302 49
181.17502 200.515 49.999939
66.00901 196.789 42
68.193008 196.366 40
70.451012 195.731 37
72.697014 195.09599 34
74.853012 194.672 32
77.001015 194.24901 30
79.140015 193.826 28
81.200012 193.614 27
83.256012 193.40199 26
85.308014 193.18999 25
87.421013 192.767 23
89.526016 192.34399 21
91.562012 192.13199 20
93.59301 191.92 19
95.563011 191.92 19
97.533012 191.92 19
99.503014 191.92 19
101.47202 191.92 19
103.49201 191.709 18
105.45901 191.709 18
107.42701 191.709 18
109.39501 191.709 18
111.40401 191.49699 17
113.37001 191.49699 17
115.37302 191.285 16
117.37201 191.07401 15
119.33401 191.07401 15
121.23302 191.49699 17
123.16901 191.709 18
125.13701 191.709 18
127.10401 191.709 18
129.07201 191.709 18
131.04001 191.709 18
132.98901 191.92 19
134.94101 192.13199 20
136.91301 192.13199 20
138.87201 192.34399 21
140.83401 192.55499 22
142.80101 192.767 23
144.77901 192.767 23
146.75702 192.767 23
148.73502 192.767 23
150.71301 192.767 23
152.69202 192.97899 24
154.67502 193.18999 25
156.66701 193.614 27
158.66002 193.826 28
160.66602 194.24901 30
162.66901 194.461 31
164.67702 194.672 32
166.68802 194.884 33
168.72101 195.30701 35
170.78101 195.942 38
172.85301 196.578 41
174.93701 197.213 44
177.03401 197.84799 47.000061
179.11502 198.27101 49
181.14502 198.27101 49
63.81601 195.192 44
65.837006 195.192 44
68.025017 194.77301 42
70.369011 193.93399 38
72.53701 193.515 36
74.775009 192.886 33
76.925018 192.46701 31
79.067017 192.047 29
81.200012 191.62799 27
83.256012 191.418 26
85.375008 190.99901 24
87.487007 190.58 22
89.590012 190.16 20
91.562012 190.16 20
93.534012 190.16 20
95.505013 190.16 20
97.477013 190.16 20
99.503014 189.951 19
101.52402 189.741 18
103.54102 189.53099 17
105.55402 189.32199 16
107.51801 189.32199 16
109.43801 189.53099 17
111.40401 189.53099 17
113.40901 189.32199 16
115.41002 189.112 15
117.37201 189.112 15
119.33401 189.112 15
121.26402 189.32199 16
123.19801 189.53099 17
125.16402 189.53099 17
127.10401 189.741 18
129.07201 189.741 18
131.04001 189.741 18
132.98901 189.951 19
134.95801 189.951 19
136.91301 190.16 20
138.88501 190.16 20
140.84502 190.37 21
142.81001 190.58 22
144.77901 190.789 23
146.75702 190.789 23
148.73502 190.789 23
150.71201 190.99901 24
152.69202 190.99901 24
154.67502 191.209 25
156.66202 191.418 26
158.66002 191.838 28
160.66602 192.257 30
162.68001 192.67599 32
164.70302 193.09599 34
166.71802 193.30499 35
168.755 193.72501 37
170.80002 194.144 39
172.87401 194.77301 42
174.96001 195.40199 45
177.05901 196.03101 48
179.11502 196.24101 49
181.17502 196.45 49.999939
63.904015 192.964 43
65.923012 192.964 43
68.109009 192.54901 41
70.369011 191.92599 38
72.617012 191.30299 35
74.775009 190.888 33
76.925018 190.47301 31
79.067017 190.05699 29
81.128014 189.85001 28
83.326012 189.22701 25
85.443008 188.811 23
87.553017 188.39601 21
89.590012 188.188 20
91.562012 188.188 20
93.534012 188.188 20
95.505013 188.188 20
97.477013 188.188 20
99.503014 187.98099 19
101.57501 187.56599 17
103.59101 187.358 16
105.60201 187.14999 15
107.56401 187.14999 15
109.48201 187.358 16
111.44501 187.358 16
113.40901 187.358 16
115.41002 187.14999 15
117.40701 186.94299 14
119.36701 186.94299 14
121.29501 187.14999 15
123.22801 187.358 16
125.16402 187.56599 17
127.10401 187.77301 18
129.07201 187.77301 18
131.04001 187.77301 18
132.98901 187.98099 19
134.95801 187.98099 19
136.92801 187.98099 19
138.89801 187.98099 19
140.85701 188.188 20
142.81902 188.39601 21
144.78601 188.604 22
146.75702 188.811 23
148.73201 189.019 24
150.71201 189.019 24
152.69202 189.019 24
154.67502 189.22701 25
156.66202 189.43401 26
158.66002 189.85001 28
160.66602 190.265 30
162.69202 190.888 33
164.70302 191.095 34
166.73401 191.511 36
168.755 191.718 37
170.81902 192.341 40
172.89502 192.964 43
174.96001 193.379 45
177.05901 194.002 48
179.11502 194.20999 49
181.17502 194.418 49.999939
183.23901 194.625 51
64.169014 190.32899 40
66.095016 190.53499 41
68.277016 190.123 39
70.451012 189.71201 37
72.697014 189.095 34
74.931007 188.478 31
77.001015 188.27299 30
79.067017 188.067 29
81.128014 187.862 28
83.326012 187.245 25
85.443008 186.834 23
87.553017 186.42201 21
89.590012 186.217 20
91.624008 186.011 19
93.534012 186.217 20
95.505013 186.217 20
97.477013 186.217 20
99.556015 185.80499 18
101.62701 185.394 16
103.64001 185.189 15
105.64902 184.983 14
107.60901 184.983 14
109.56902 184.983 14
111.48701 185.189 15
113.44901 185.189 15
115.41002 185.189 15
117.37201 185.189 15
119.33401 185.189 15
121.26402 185.394 16
123.22801 185.394 16
125.16402 185.59999 17
127.10401 185.80499 18
129.07201 185.80499 18
131.04001 185.80499 18
132.98901 186.011 19
134.95801 186.011 19
136.92801 186.011 19
138.89801 186.011 19
140.85701 186.217 20
142.81902 186.42201 21
144.78601 186.62801 22
146.75702 186.834 23
148.73201 187.039 24
150.71201 187.039 24
152.69202 187.039 24
154.67101 187.039 24
156.65601 187.245 25
158.66002 187.862 28
160.66602 188.27299 30
162.68001 188.68401 32
164.70302 189.095 34
166.73401 189.50699 36
168.755 189.71201 37
170.80002 190.123 39
172.87401 190.74001 42
174.96001 191.35699 45
177.03401 191.76801 47.000061
179.11502 192.17999 49
181.20401 192.591 51
183.27002 192.79601 52.000061
62.06601 188.52 41
64.169014 188.317 40
66.267014 188.11301 39
68.445007 187.70599 37
70.615013 187.299 35
72.85701 186.688 32
75.00901 186.28099 30
77.001015 186.28099 30
79.067017 186.077 29
81.128014 185.87399 28
83.326012 185.26299 25
85.511009 184.65199 22
87.618011 184.24501 20
89.654007 184.041 19
91.624008 184.041 19
93.59301 184.041 19
95.563011 184.041 19
97.533012 184.041 19
99.610016 183.634 17
101.62701 183.431 16
103.64001 183.22701 15
105.64902 183.02301 14
107.65501 182.81999 13
109.61201 182.81999 13
111.57001 182.81999 13
113.48801 183.02301 14
115.44801 183.02301 14
117.37201 183.22701 15
119.33401 183.22701 15
121.26402 183.431 16
123.22801 183.431 16
125.16402 183.634 17
127.13001 183.634 17
129.07201 183.838 18
131.04001 183.838 18
133.00801 183.838 18
134.97501 183.838 18
136.94301 183.838 18
138.91101 183.838 18
140.86801 184.041 19
142.82802 184.24501 20
144.78601 184.65199 22
146.75702 184.856 23
148.73201 185.05899 24
150.71201 185.05899 24
152.69202 185.05899 24
154.67101 185.05899 24
156.65601 185.26299 25
158.65302 185.67 27
160.65701 186.077 29
162.66901 186.48399 31
164.69002 186.892 33
166.71802 187.299 35
168.73801 187.502 36
170.78101 187.91 38
172.83101 188.317 40
174.91402 188.92799 43
177.00801 189.53799 46
179.08701 189.94499 48
181.17502 190.35301 49.999939
183.27002 190.75999 52.000061
185.30701 190.75999 52.000061
59.868011 186.90901 43
61.976013 186.70801 42
64.081009 186.506 41
66.181007 186.304 40
68.361015 185.901 38
70.615013 185.297 35
72.777008 184.89299 33
74.931007 184.48999 31
77.001015 184.28899 30
79.067017 184.08699 29
81.200012 183.68401 27
83.326012 183.28101 25
85.511009 182.67599 22
87.618011 182.27299 20
89.654007 182.07199 19
91.624008 182.07199 19
93.59301 182.07199 19
95.563011 182.07199 19
97.588013 181.87 18
99.610016 181.668 17
101.67902 181.265 15
103.69001 181.064 14
105.64902 181.064 14
107.65501 180.862 13
109.61201 180.862 13
111.57001 180.862 13
113.52701 180.862 13
115.44801 181.064 14
117.37201 181.265 15
119.30002 181.467 16
121.26402 181.467 16
123.22801 181.467 16
125.19101 181.467 16
127.13001 181.668 17
129.09502 181.668 17
131.061 181.668 17
133.00801 181.87 18
134.97501 181.87 18
136.94301 181.87 18
138.91101 181.87 18
140.87901 181.87 18
142.83701 182.07199 19
144.79301 182.47501 21
146.76201 182.67599 22
148.73502 182.87801 23
150.71301 182.87801 23
152.69002 182.87801 23
154.67101 183.07901 24
156.65601 183.28101 25
158.64502 183.483 26
160.64801 183.886 28
162.65802 184.28899 30
164.67702 184.692 32
166.70302 185.095 34
168.72101 185.297 35
170.76102 185.7 37
172.81001 186.103 39
174.867 186.506 41
176.98302 187.31201 45
179.08701 187.91699 48
181.17502 188.31999 49.999939
183.23901 188.522 51
185.30701 188.72299 52.000061
187.41402 189.12599 54
57.661011 185.28999 45
59.684013 185.28999 45
61.706009 185.28999 45
63.904015 184.89101 43
66.095016 184.492 41
68.277016 184.093 39
70.451012 183.694 37
72.697014 183.09499 34
74.853012 182.696 32
77.001015 182.29701 30
79.140015 181.89799 28
81.272011 181.49901 26
83.396011 181.099 24
85.511009 180.7 22
87.618011 180.30099 20
89.654007 180.10201 19
91.685013 179.90201 18
93.653015 179.90201 18
95.678009 179.703 17
97.644012 179.703 17
99.66301 179.50299 16
101.67902 179.304 15
103.64001 179.304 15
105.60201 179.304 15
107.60901 179.104 14
109.61201 178.905 13
111.57001 178.905 13
113.52701 178.905 13
115.44801 179.104 14
117.37201 179.304 15
119.33401 179.304 15
121.29501 179.304 15
123.25701 179.304 15
125.21901 179.304 15
127.15501 179.50299 16
129.11902 179.50299 16
131.061 179.703 17
133.02701 179.703 17
134.97501 179.90201 18
136.94301 179.90201 18
138.91101 179.90201 18
140.87901 179.90201 18
142.84601 179.90201 18
144.80701 180.10201 19
146.76701 180.50099 21
148.73801 180.7 22
150.71402 180.7 22
152.69002 180.89999 23
154.67101 181.099 24
156.65601 181.299 25
158.64502 181.49901 26
160.63901 181.698 27
162.63602 181.89799 28
164.65001 182.29701 30
166.67302 182.696 32
168.70302 183.09499 34
170.72301 183.29399 35
172.78902 183.89299 38
174.84401 184.29201 40
176.95702 185.09001 44
179.08701 185.88901 48
181.17502 186.28799 49.999939
183.27002 186.687 52.000061
185.37401 187.086 54
187.52101 187.68401 57.000061
189.79202 188.88199 62.999939
55.735016 183.07001 44
57.661011 183.267 45
59.592018 183.465 46
61.616013 183.465 46
63.81601 183.07001 44
65.923012 182.87199 43
68.109009 182.47699 41
70.28701 182.082 39
72.53701 181.49001 36
74.853012 180.7 32
77.001015 180.30501 30
79.140015 179.91 28
81.272011 179.515 26
83.465019 178.922 23
85.579018 178.52699 21
87.684013 178.132 19
89.71701 177.93401 18
91.747009 177.737 17
93.772011 177.539 16
95.736015 177.539 16
97.700012 177.539 16
99.66301 177.539 16
101.62701 177.539 16
103.59101 177.539 16
105.60201 177.342 15
107.56401 177.342 15
109.56902 177.14401 14
111.52802 177.14401 14
113.48801 177.14401 14
115.44801 177.14401 14
117.40701 177.14401 14
119.36701 177.14401 14
121.32701 177.14401 14
123.28601 177.14401 14
125.24602 177.14401 14
127.18001 177.342 15
129.14201 177.342 15
131.08202 177.539 16
133.04602 177.539 16
134.99301 177.737 17
136.95801 177.737 17
138.92401 177.737 17
140.89001 177.737 17
142.85501 177.737 17
144.81401 177.93401 18
146.77701 178.132 19
148.74402 178.33 20
150.71402 178.52699 21
152.68901 178.72501 22
154.67101 179.12001 24
156.65601 179.317 25
158.64502 179.515 26
160.62901 179.515 26
162.62502 179.71199 27
164.62401 179.91 28
166.64201 180.30501 30
168.686 180.897 33
170.72301 181.29199 35
172.76701 181.687 37
174.84401 182.28 40
176.95702 183.07001 44
179.11502 184.058 49
181.23302 184.65001 52.000061
183.33301 185.045 54
185.44002 185.44 56
187.62701 186.23 60.000061
189.867 187.218 65.000061
192.08801 188.008 69
194.367 188.996 74
196.66602 189.983 79
198.89401 190.576 82
53.617012 181.245 45
55.735016 181.05 44
57.661011 181.245 45
59.592018 181.44099 46
61.616013 181.44099 46
63.81601 181.05 44
65.923012 180.85399 43
68.109009 180.463 41
70.28701 180.07199 39
72.53701 179.48601 36
74.853012 178.70399 32
77.077011 178.117 29
79.214012 177.726 27
81.344017 177.33499 25
83.535011 176.74901 22
85.646011 176.358 20
87.750008 175.967 18
89.781006 175.771 17
91.809006 175.576 16
93.832016 175.38 15
95.794014 175.38 15
97.755013 175.38 15
99.66301 175.576 16
101.62701 175.576 16
103.59101 175.576 16
105.55402 175.576 16
107.56401 175.38 15
109.56902 175.185 14
111.52802 175.185 14
113.52701 174.989 13
115.48502 174.989 13
117.44301 174.989 13
119.40001 174.989 13
121.35802 174.989 13
123.31501 174.989 13
125.27301 174.989 13
127.20502 175.185 14
129.16501 175.185 14
131.104 175.38 15
133.06502 175.38 15
135.01001 175.576 16
136.97301 175.576 16
138.92401 175.771 17
140.89001 175.771 17
142.85501 175.771 17
144.82101 175.771 17
146.78201 175.967 18
148.74701 176.162 19
150.71501 176.358 20
152.68802 176.55299 21
154.66801 176.944 23
156.65601 177.33499 25
158.64502 177.53101 26
160.62901 177.53101 26
162.61301 177.53101 26
164.61002 177.726 27
166.62701 178.117 29
168.65102 178.508 31
170.70302 179.095 34
172.76701 179.681 37
174.84401 180.26801 40
176.98302 181.245 45
179.14201 182.22299 49.999939
181.26302 182.80899 53
183.39601 183.396 56
185.54102 183.98199 59
187.69801 184.569 62.000061
189.90501 185.35001 66
192.08801 185.937 69
194.32602 186.71899 73
196.57901 187.50099 77
198.80301 188.08701 80
200.992 188.478 82
203.03902 188.28299 81
51.394012 179.61 47.000061
53.518013 179.416 46
55.543015 179.416 46
57.567017 179.416 46
59.500015 179.61 47.000061
61.616013 179.416 46
63.81601 179.02901 44
65.923012 178.836 43
68.109009 178.44901 41
70.369011 177.868 38
72.617012 177.28799 35
74.931007 176.51399 31
77.152016 175.93401 28
79.28801 175.547 26
81.416008 175.16 24
83.535011 174.77299 22
85.646011 174.386 20
87.684013 174.192 19
89.781006 173.806 17
91.809006 173.612 16
93.832016 173.41899 15
95.794014 173.41899 15
97.755013 173.41899 15
99.66301 173.612 16
101.62701 173.612 16
103.59101 173.612 16
105.60201 173.41899 15
107.60901 173.22501 14
109.56902 173.22501 14
111.57001 173.032 13
113.52701 173.032 13
115.48502 173.032 13
117.47801 172.838 12
119.43401 172.838 12
121.38902 172.838 12
123.37401 172.645 11
125.30001 172.838 12
127.23101 173.032 13
129.18802 173.032 13
131.14601 173.032 13
133.104 173.032 13
135.04401 173.22501 14
136.98901 173.41899 15
138.93701 173.612 16
140.89001 173.806 17
142.85501 173.806 17
144.82101 173.806 17
146.78702 173.806 17
148.75002 173.99899 18
150.71602 174.192 19
152.68701 174.386 20
154.66501 174.77299 22
156.65102 175.16 24
158.63802 175.35301 25
160.62001 175.35301 25
162.60202 175.35301 25
164.58401 175.35301 25
166.59601 175.74001 27
168.617 176.127 29
170.66501 176.70799 32
172.74602 177.481 36
174.867 178.44901 41
177.00801 179.416 46
179.14201 180.19 49.999939
181.29201 180.96399 54
183.42702 181.54401 57.000061
185.60802 182.31801 61
187.76901 182.899 64
189.94202 183.47899 67
192.08801 183.866 69
194.28401 184.446 72
196.535 185.22 76
198.71201 185.60699 78
200.84901 185.80099 79
202.94 185.80099 79
49.061012 178.158 49.999939
51.09301 178.158 49.999939
53.224014 177.966 49
55.351013 177.77499 48
57.379013 177.77499 48
59.500015 177.58299 47.000061
61.616013 177.392 46
63.81601 177.009 44
66.00901 176.62599 42
68.193008 176.243 40
70.451012 175.66901 37
72.777008 174.903 33
75.00901 174.32899 30
77.228012 173.75401 27
79.362015 173.371 25
81.416008 173.17999 24
83.535011 172.797 22
85.579018 172.606 21
87.684013 172.22301 19
89.71701 172.03101 18
91.809006 171.64799 16
93.832016 171.45699 15
95.794014 171.45699 15
97.755013 171.45699 15
99.71701 171.45699 15
101.67902 171.45699 15
103.64001 171.45699 15
105.64902 171.265 14
107.60901 171.265 14
109.61201 171.07401 13
111.57001 171.07401 13
113.56702 170.883 12
115.52201 170.883 12
117.47801 170.883 12
119.46701 170.69099 11
121.42101 170.69099 11
123.40302 170.5 10
125.32801 170.69099 11
127.25601 170.883 12
129.21201 170.883 12
131.16701 170.883 12
133.12302 170.883 12
135.061 171.07401 13
137.00401 171.265 14
138.93701 171.64799 16
140.89001 171.84 17
142.85501 171.84 17
144.82101 171.84 17
146.78702 171.84 17
148.75002 172.03101 18
150.71701 172.03101 18
152.68602 172.22301 19
154.66202 172.606 21
156.64601 172.98799 23
158.63101 173.17999 24
160.61101 173.17999 24
162.59102 173.17999 24
164.57101 173.17999 24
166.56601 173.371 25
168.60001 173.946 28
170.64601 174.52 31
172.72501 175.286 35
174.84401 176.243 40
177.00801 177.392 46
179.14201 178.158 49.999939
181.32201 179.11499 54.999939
183.45901 179.68901 57.999939
185.64101 180.455 62.000061
187.80502 181.02901 65.000061
189.98001 181.604 67.999939
192.12802 181.98601 70
194.28401 182.36899 72
196.44801 182.752 74
198.57501 182.944 75
200.70601 183.13501 76
202.841 183.32701 77
204.92801 183.32701 77
48.85601 176.504 52.000061
50.893013 176.504 52.000061
53.028015 176.314 51
55.158012 176.125 49.999939
57.285011 175.936 49
59.408012 175.74599 48
61.616013 175.367 46
63.728012 175.17801 45
66.00901 174.61 42
68.193008 174.23099 40
70.533012 173.47301 36
72.777008 172.905 33
75.00901 172.33699 30
77.152016 171.95799 28
79.28801 171.57901 26
81.416008 171.2 24
83.465019 171.011 23
85.579018 170.632 21
87.618011 170.442 20
89.71701 170.064 18
91.747009 169.87399 17
93.772011 169.68501 16
95.794014 169.495 15
97.755013 169.495 15
99.71701 169.495 15
101.67902 169.495 15
103.69001 169.306 14
105.64902 169.306 14
107.65501 169.116 13
109.61201 169.116 13
111.57001 169.116 13
113.56702 168.927 12
115.52201 168.927 12
117.47801 168.927 12
119.46701 168.73799 11
121.42101 168.73799 11
123.40302 168.548 10
125.32801 168.73799 11
127.28101 168.73799 11
129.23502 168.73799 11
131.18802 168.73799 11
133.12302 168.927 12
135.061 169.116 13
137.00401 169.306 14
138.95001 169.495 15
140.90102 169.68501 16
142.85501 169.87399 17
144.82101 169.87399 17
146.78702 169.87399 17
148.75002 170.064 18
150.71701 170.064 18
152.68501 170.064 18
154.65601 170.25299 19
156.63602 170.632 21
158.617 170.821 22
160.60202 171.011 23
162.58002 171.011 23
164.55801 171.011 23
166.56601 171.38899 25
168.58202 171.76799 27
170.62601 172.33699 30
172.70401 173.09401 34
174.82001 174.041 39
176.98302 175.17801 45
179.17001 176.314 51
181.35101 177.26199 56
183.55301 178.209 61
185.742 178.966 65.000061
187.91101 179.535 67.999939
190.05501 179.91299 70
192.20702 180.29199 72
194.367 180.67101 74
196.44801 180.67101 74
198.52901 180.67101 74
200.61101 180.67101 74
202.74101 180.86099 75
204.87601 181.05 76
206.96101 181.05 76
46.716011 174.655 53
48.754013 174.655 53
50.793015 174.655 53
52.930008 174.467 52.000061
55.062012 174.28 51
57.285011 173.905 49
59.408012 173.718 48
61.526016 173.53 47.000061
63.640015 173.343 46
65.923012 172.78101 43
68.193008 172.21899 40
70.533012 171.46901 36
72.777008 170.907 33
74.931007 170.532 31
77.077011 170.157 29
79.28801 169.595 26
81.344017 169.40799 25
83.465019 169.033 23
85.511009 168.845 22
87.618011 168.47099 20
89.71701 168.09601 18
91.747009 167.908 17
93.772011 167.72101 16
95.794014 167.534 15
97.755013 167.534 15
99.771011 167.34599 14
101.73001 167.34599 14
103.73901 167.15901 13
105.69701 167.15901 13
107.65501 167.15901 13
109.61201 167.15901 13
111.57001 167.15901 13
113.52701 167.15901 13
115.48502 167.15901 13
117.47801 166.97099 12
119.43401 166.97099 12
121.42101 166.784 11
123.37401 166.784 11
125.32801 166.784 11
127.28101 166.784 11
129.23502 166.784 11
131.18802 166.784 11
133.12302 166.97099 12
135.061 167.15901 13
137.00401 167.34599 14
138.95001 167.534 15
140.90102 167.72101 16
142.86502 167.72101 16
144.82802 167.72101 16
146.78702 167.908 17
148.75301 167.908 17
150.71802 167.908 17
152.68501 168.09601 18
154.65302 168.09601 18
156.62601 168.283 19
158.60301 168.47099 20
160.58401 168.658 21
162.56902 168.845 22
164.55801 169.033 23
166.56601 169.40799 25
168.58202 169.782 27
170.62601 170.34499 30
172.70401 171.09399 34
174.79701 171.84401 38
176.95702 172.968 44
179.17001 174.28 51
181.41002 175.59201 57.999939
183.61601 176.52901 62.999939
185.80901 177.278 67
187.98201 177.84 70
190.13 178.215 72
192.28601 178.59 74
194.367 178.59 74
196.44801 178.59 74
198.48401 178.403 73
200.61101 178.59 74
202.74101 178.77699 75
204.92801 179.15199 77
207.01501 179.15199 77
46.716011 172.616 53
48.754013 172.616 53
50.793015 172.616 53
52.831017 172.616 53
55.062012 172.245 51
57.285011 171.875 49
59.408012 171.68901 48
61.526016 171.504 47.000061
63.640015 171.31799 46
65.923012 170.76201 43
68.193008 170.20599 40
70.451012 169.65001 37
72.697014 169.09399 34
74.931007 168.53801 31
77.152016 167.98199 28
79.28801 167.61101 26
81.416008 167.23999 24
83.465019 167.05499 23
85.579018 166.68401 21
87.684013 166.31299 19
89.71701 166.12799 18
91.747009 165.94299 17
93.832016 165.57201 15
95.794014 165.57201 15
97.755013 165.57201 15
99.771011 165.38701 14
101.78201 165.20099 13
103.73901 165.20099 13
105.74402 165.01599 12
107.70001 165.01599 12
109.65601 165.01599 12
111.57001 165.20099 13
113.52701 165.20099 13
115.48502 165.20099 13
117.44301 165.20099 13
119.40001 165.20099 13
121.38902 165.01599 12
123.37401 164.83 11
125.32801 164.83 11
127.28101 164.83 11
129.23502 164.83 11
131.18802 164.83 11
133.12302 165.01599 12
135.04401 165.38701 14
137.00401 165.38701 14
138.95001 165.57201 15
140.91202 165.57201 15
142.87401 165.57201 15
144.83501 165.57201 15
146.79201 165.757 16
148.75301 165.94299 17
150.71802 165.94299 17
152.68401 165.94299 17
154.65001 165.94299 17
156.61501 165.94299 17
158.58801 166.12799 18
160.56502 166.31299 19
162.54601 166.49901 20
164.54401 166.87 22
166.56601 167.42601 25
168.60001 167.98199 28
170.64601 168.53801 31
172.70401 169.09399 34
174.82001 170.021 39
176.95702 170.948 44
179.17001 172.245 51
181.41002 173.543 57.999939
183.67902 174.841 65.000061
185.87502 175.582 69
188.05301 176.138 72
190.16701 176.32399 73
192.28601 176.50899 74
194.40901 176.694 75
196.44801 176.50899 74
198.52901 176.50899 74
200.65802 176.694 75
202.841 177.065 77
204.979 177.25 78
207.12201 177.43599 79
209.21402 177.43599 79
44.783012 170.394 52.000061
46.820015 170.394 52.000061
48.85601 170.394 52.000061
50.793015 170.57701 53
52.930008 170.394 52.000061
55.062012 170.211 51
57.285011 169.84399 49
59.408012 169.661 48
61.526016 169.47701 47.000061
63.640015 169.29401 46
65.837006 168.927 44
68.109009 168.377 41
70.369011 167.827 38
72.697014 167.09399 34
74.931007 166.54401 31
77.152016 165.994 28
79.362015 165.444 25
81.487015 165.077 23
83.535011 164.894 22
85.646011 164.52699 20
87.750008 164.16 18
89.781006 163.97699 17
91.87001 163.61 15
93.892014 163.427 14
95.851013 163.427 14
97.811012 163.427 14
99.771011 163.427 14
101.78201 163.24399 13
103.78902 163.06 12
105.79201 162.877 11
107.74601 162.877 11
109.69901 162.877 11
111.61101 163.06 12
113.52701 163.24399 13
115.44801 163.427 14
117.40701 163.427 14
119.40001 163.24399 13
121.35802 163.24399 13
123.34502 163.06 12
125.30001 163.06 12
127.28101 162.877 11
129.23502 162.877 11
131.18802 162.877 11
133.104 163.24399 13
135.04401 163.427 14
137.00401 163.427 14
138.95001 163.61 15
140.91202 163.61 15
142.87401 163.61 15
144.83501 163.61 15
146.79701 163.61 15
148.75601 163.79399 16
150.71802 163.97699 17
152.68401 163.97699 17
154.64702 163.79399 16
156.61002 163.79399 16
158.58101 163.97699 17
160.55602 164.16 18
162.53502 164.34399 19
164.54401 164.894 22
166.56601 165.444 25
168.617 166.177 29
170.68401 166.91101 33
172.74602 167.461 36
174.82001 168.011 39
176.95702 168.927 44
179.14201 170.02701 49.999939
181.38101 171.311 57.000061
183.64702 172.59399 64
185.87502 173.511 69
188.05301 174.061 72
190.20502 174.42799 74
192.32602 174.61101 75
194.45001 174.79401 76
196.57901 174.978 77
198.66602 174.978 77
200.80101 175.16101 78
202.99002 175.528 80
205.13501 175.711 81
207.33701 176.078 83
209.43701 176.078 83
42.639015 168.539 53
44.890015 168.17599 51
46.924019 168.17599 51
48.959015 168.17599 51
50.893013 168.358 52.000061
52.930008 168.358 52.000061
55.062012 168.17599 51
57.285011 167.814 49
59.500015 167.45099 47.000061
61.526016 167.45099 47.000061
63.728012 167.088 45
65.923012 166.726 43
68.109009 166.36301 41
70.369011 165.819 38
72.697014 165.09401 34
74.931007 164.55 31
77.152016 164.006 28
79.362015 163.46199 25
81.487015 163.099 23
83.535011 162.918 22
85.646011 162.55499 20
87.750008 162.19299 18
89.845016 161.82999 16
91.932007 161.467 14
93.892014 161.467 14
95.851013 161.467 14
97.811012 161.467 14
99.771011 161.467 14
101.78201 161.286 13
103.73901 161.286 13
105.74402 161.10501 12
107.74601 160.923 11
109.69901 160.923 11
111.61101 161.10501 12
113.52701 161.286 13
115.44801 161.467 14
117.40701 161.467 14
119.36701 161.467 14
121.35802 161.286 13
123.34502 161.10501 12
125.32801 160.923 11
127.28101 160.923 11
129.23502 160.923 11
131.16701 161.10501 12
133.104 161.286 13
135.04401 161.467 14
137.00401 161.467 14
138.96301 161.467 14
140.92302 161.467 14
142.88301 161.467 14
144.83501 161.649 15
146.79201 161.82999 16
148.75301 162.011 17
150.71701 162.19299 18
152.68401 162.011 17
154.64702 161.82999 16
156.61002 161.82999 16
158.57401 161.82999 16
160.54701 162.011 17
162.53502 162.37401 19
164.54401 162.918 22
166.58101 163.64301 26
168.65102 164.55 31
170.72301 165.27499 35
172.78902 165.819 38
174.867 166.36301 41
176.95702 166.907 44
179.11502 167.814 49
181.35101 169.08299 56
183.61601 170.35199 62.999939
185.84201 171.259 67.999939
188.05301 171.98401 72
190.20502 172.347 74
192.36502 172.709 76
194.53302 173.07199 78
196.71001 173.435 80
198.80301 173.435 80
200.94402 173.61601 81
203.08902 173.797 82
205.29001 174.16 84
207.49802 174.52299 86
209.71501 174.88501 88
42.530014 166.67999 54
44.890015 166.142 51
47.028008 165.96199 49.999939
49.061012 165.96199 49.999939
50.893013 166.321 52.000061
52.831017 166.5 53
54.966011 166.321 52.000061
57.19101 165.96199 49.999939
59.408012 165.60399 48
61.616013 165.245 46
63.728012 165.06601 45
65.923012 164.707 43
68.193008 164.16899 40
70.451012 163.632 37
72.697014 163.09399 34
74.931007 162.55598 31
77.152016 162.01801 28
79.28801 161.659 26
81.344017 161.48 25
83.465019 161.121 23
85.579018 160.763 21
87.684013 160.40399 19
89.781006 160.04599 17
91.87001 159.687 15
93.892014 159.50801 14
95.851013 159.50801 14
97.811012 159.50801 14
99.71701 159.687 15
101.73001 159.50801 14
103.69001 159.50801 14
105.69701 159.328 13
107.65501 159.328 13
109.65601 159.149 12
111.61101 159.149 12
113.52701 159.328 13
115.44801 159.50801 14
117.40701 159.50801 14
119.36701 159.50801 14
121.35802 159.328 13
123.34502 159.149 12
125.32801 158.97 11
127.28101 158.97 11
129.23502 158.97 11
131.16701 159.149 12
133.08401 159.50801 14
135.02701 159.687 15
136.98901 159.687 15
138.95001 159.687 15
140.91202 159.687 15
142.87401 159.687 15
144.82802 159.866 16
146.78702 160.04599 17
148.74701 160.40399 19
150.71602 160.40399 19
152.68602 160.40399 19
154.65302 160.22501 18
156.62102 160.22501 18
158.58801 160.22501 18
160.56502 160.40399 19
162.55701 160.763 21
164.57101 161.30099 24
166.61201 162.01801 28
168.66901 162.735 32
170.74202 163.452 36
172.81001 163.99001 39
174.867 164.349 41
176.95702 164.88699 44
179.11502 165.783 49
181.29201 166.67999 54
183.522 167.75499 60.000061
185.77501 168.83101 66
187.98201 169.548 70
190.20502 170.26601 74
192.40501 170.80299 77
194.617 171.341 80
196.79701 171.7 82
198.89401 171.7 82
201.03902 171.879 83
203.18802 172.05901 84
205.39301 172.41699 86
207.65901 172.955 89
209.99402 173.67201 93
40.049019 165.34799 57.999939
42.422012 164.81601 54.999939
44.783012 164.28401 52.000061
47.028008 163.92999 49.999939
49.061012 163.92999 49.999939
50.893013 164.28401 52.000061
52.733009 164.63899 54
54.774017 164.63899 54
57.003014 164.28401 52.000061
59.31501 163.75301 49
61.616013 163.22101 46
63.81601 162.866 44
66.00901 162.51201 42
68.277016 161.98 39
70.451012 161.625 37
72.697014 161.093 34
74.853012 160.739 32
77.001015 160.384 30
79.140015 160.03 28
81.272011 159.675 26
83.326012 159.498 25
85.375008 159.321 24
87.487007 158.966 22
89.654007 158.43401 19
91.747009 158.08 17
93.772011 157.903 16
95.736015 157.903 16
97.700012 157.903 16
99.610016 158.08 17
101.57501 158.08 17
103.54102 158.08 17
105.55402 157.903 16
107.56401 157.72501 15
109.52501 157.72501 15
111.52802 157.54799 14
113.48801 157.54799 14
115.41002 157.72501 15
117.40701 157.54799 14
119.36701 157.54799 14
121.35802 157.371 13
123.34502 157.19301 12
125.32801 157.01599 11
127.28101 157.01599 11
129.21201 157.19301 12
131.14601 157.371 13
133.06502 157.72501 15
135.01001 157.903 16
136.97301 157.903 16
138.93701 157.903 16
140.90102 157.903 16
142.86502 157.903 16
144.81401 158.25699 18
146.77202 158.612 20
148.74101 158.78899 21
150.71402 158.966 22
152.68901 158.966 22
154.66202 158.78899 21
156.63602 158.78899 21
158.61002 158.78899 21
160.60202 159.14301 23
162.60202 159.498 25
164.61002 159.853 27
166.64201 160.384 30
168.70302 161.093 34
170.76102 161.625 37
172.81001 161.98 39
174.89001 162.51201 42
176.95702 162.866 44
179.08701 163.575 48
181.26302 164.46201 53
183.45901 165.34799 57.999939
185.70801 166.412 64
187.94601 167.298 69
190.20502 168.18399 74
192.44402 168.894 78
194.617 169.248 80
196.79701 169.60301 82
198.89401 169.60301 82
201.03902 169.78 83
203.23801 170.13501 85
205.49602 170.666 88
207.82101 171.375 92
210.16101 172.08501 96
39.828018 163.65001 60.000061
42.314011 162.94899 56
44.67701 162.423 53
47.028008 161.897 49.999939
48.959015 162.073 51
50.793015 162.423 53
52.63501 162.774 54.999939
54.678017 162.774 54.999939
56.909019 162.423 53
59.223007 161.897 49.999939
61.526016 161.37201 47.000061
63.81601 160.84599 44
66.095016 160.31999 41
68.277016 159.97 39
70.451012 159.619 37
72.617012 159.269 35
74.775009 158.918 33
76.925018 158.56799 31
78.993011 158.392 30
81.057014 158.217 29
83.116013 158.04199 28
85.172012 157.867 27
87.290009 157.51601 25
89.399017 157.166 23
91.500015 156.81499 21
93.59301 156.465 19
95.563011 156.465 19
97.533012 156.465 19
99.503014 156.465 19
101.42101 156.64 20
103.39301 156.64 20
105.36401 156.64 20
107.38201 156.465 19
109.39501 156.289 18
111.40401 156.114 17
113.40901 155.939 16
115.37302 155.939 16
117.33701 155.939 16
119.33401 155.76399 15
121.32701 155.588 14
123.31501 155.41299 13
125.27301 155.41299 13
127.23101 155.41299 13
129.18802 155.41299 13
131.12502 155.588 14
133.06502 155.76399 15
135.01001 155.939 16
136.95801 156.114 17
138.92401 156.114 17
140.87901 156.289 18
142.83701 156.465 19
144.79301 156.81499 21
146.75702 157.166 23
148.73201 157.341 24
150.71101 157.51601 25
152.69301 157.51601 25
154.67502 157.51601 25
156.65601 157.51601 25
158.63802 157.51601 25
160.63901 157.867 27
162.64702 158.217 29
164.66301 158.56799 31
166.68802 158.918 33
168.72101 159.269 35
170.76102 159.619 37
172.81001 159.97 39
174.867 160.31999 41
176.95702 160.84599 44
179.08701 161.54701 48
181.23302 162.248 52.000061
183.42702 163.12399 57.000061
185.64101 164 62.000061
187.91101 165.052 67.999939
190.16701 165.92801 73
192.40501 166.629 77
194.617 167.155 80
196.75302 167.33 81
198.89401 167.50499 82
201.08701 167.85599 84
203.28801 168.20601 86
205.60001 168.907 90
207.98201 169.784 95
210.27202 170.30899 98
37.66301 161.77 61
39.828018 161.597 60.000061
42.206009 161.077 57.000061
44.571014 160.558 54
46.924019 160.03799 51
48.959015 160.03799 51
50.893013 160.211 52.000061
52.733009 160.558 54
54.678017 160.731 54.999939
56.81501 160.558 54
59.131012 160.03799 51
61.526016 159.345 47.000061
63.81601 158.825 44
66.00901 158.479 42
68.109009 158.306 41
70.28701 157.959 39
72.377007 157.786 38
